ply
format ascii 1.0
comment Made with spinscan!
element vertex 721
property float x
property float y
property float z
property float nx
property float ny
property float nz
property uchar red
property uchar green
property uchar blue
end_header
-0.001393 -0.003303 0.039671 -0.001393 -0.003303 0.000000 183 86 0
-0.001393 -0.003303 0.040511 -0.001393 -0.003303 0.000000 182 89 4
-0.001116 -0.002647 0.041351 -0.001116 -0.002647 0.000000 178 83 0
-0.001059 -0.002516 0.042190 -0.001059 -0.002516 0.000000 179 83 0
-0.000948 -0.002253 0.043030 -0.000948 -0.002253 0.000000 183 85 0
-0.001006 -0.002383 0.043869 -0.001006 -0.002383 0.000000 182 88 1
-0.000894 -0.002121 0.044709 -0.000894 -0.002121 0.000000 182 89 2
-0.000613 -0.001461 0.045549 -0.000613 -0.001461 0.000000 185 87 1
-0.000503 -0.001196 0.046388 -0.000503 -0.001196 0.000000 184 85 0
-0.000450 -0.001062 0.047228 -0.000450 -0.001062 0.000000 176 87 0
-0.001277 -0.002988 0.048067 -0.001277 -0.002988 0.000000 159 84 3
-0.002438 -0.005696 0.048907 -0.002438 -0.005696 0.000000 141 85 5
-0.004110 -0.009747 0.049747 -0.004110 -0.009747 0.000000 98 76 8
-0.003891 -0.009241 0.050586 -0.003891 -0.009241 0.000000 91 69 6
-0.004053 -0.009622 0.051426 -0.004053 -0.009622 0.000000 74 55 0
-0.004216 -0.009998 0.052265 -0.004216 -0.009998 0.000000 64 47 0
-0.004006 -0.009490 0.053105 -0.004006 -0.009490 0.000000 71 58 8
0.002077 0.005290 0.053945 0.002077 0.005290 0.000000 74 56 6
-0.004646 -0.010983 0.054784 -0.004646 -0.010983 0.000000 79 66 9
0.001702 0.004080 0.055624 0.001702 0.004080 0.000000 102 44 0
-0.002050 -0.004682 0.056463 -0.002050 -0.004682 0.000000 81 48 5
-0.006583 -0.015618 0.057303 -0.006583 -0.015618 0.000000 83 70 9
-0.004977 -0.011870 0.058143 -0.004977 -0.011870 0.000000 86 75 7
-0.004533 -0.010728 0.058982 -0.004533 -0.010728 0.000000 91 79 10
-0.001116 -0.002647 0.059822 -0.001116 -0.002647 0.000000 142 75 0
-0.001059 -0.002516 0.060661 -0.001059 -0.002516 0.000000 143 73 0
-0.001061 -0.002515 0.061501 -0.001061 -0.002515 0.000000 140 72 0
-0.001172 -0.002778 0.062341 -0.001172 -0.002778 0.000000 134 74 2
-0.001116 -0.002647 0.063180 -0.001116 -0.002647 0.000000 134 70 2
-0.001225 -0.002911 0.064020 -0.001225 -0.002911 0.000000 131 69 2
-0.001226 -0.002910 0.064860 -0.001226 -0.002910 0.000000 131 59 0
-0.001337 -0.003173 0.065699 -0.001337 -0.003173 0.000000 134 52 0
-0.001337 -0.003173 0.066539 -0.001337 -0.003173 0.000000 140 49 0
-0.001337 -0.003173 0.067378 -0.001337 -0.003173 0.000000 142 54 4
-0.001281 -0.003042 0.068218 -0.001281 -0.003042 0.000000 143 58 4
-0.001281 -0.003042 0.069058 -0.001281 -0.003042 0.000000 143 60 2
-0.001337 -0.003173 0.069897 -0.001337 -0.003173 0.000000 145 64 2
-0.001225 -0.002911 0.070737 -0.001225 -0.002911 0.000000 149 74 4
-0.001337 -0.003173 0.071576 -0.001337 -0.003173 0.000000 150 78 6
-0.001116 -0.002647 0.072416 -0.001116 -0.002647 0.000000 159 100 15
-0.001059 -0.002516 0.073256 -0.001059 -0.002516 0.000000 162 109 19
-0.001059 -0.002516 0.074095 -0.001059 -0.002516 0.000000 160 115 33
-0.001005 -0.002384 0.074935 -0.001005 -0.002384 0.000000 162 120 32
-0.001062 -0.002514 0.075774 -0.001062 -0.002514 0.000000 154 112 23
-0.001228 -0.002909 0.076614 -0.001228 -0.002909 0.000000 145 99 13
-0.001337 -0.003173 0.077454 -0.001337 -0.003173 0.000000 138 91 3
-0.001337 -0.003173 0.078293 -0.001337 -0.003173 0.000000 139 89 0
-0.001337 -0.003173 0.079133 -0.001337 -0.003173 0.000000 143 92 3
-0.001449 -0.003434 0.079972 -0.001449 -0.003434 0.000000 149 95 4
-0.001337 -0.003173 0.080812 -0.001337 -0.003173 0.000000 160 97 1
-0.001337 -0.003173 0.081652 -0.001337 -0.003173 0.000000 166 104 4
-0.001337 -0.003173 0.082491 -0.001337 -0.003173 0.000000 168 107 0
-0.001337 -0.003173 0.083331 -0.001337 -0.003173 0.000000 168 109 0
-0.001282 -0.003041 0.084170 -0.001282 -0.003041 0.000000 165 107 0
-0.001116 -0.002647 0.085010 -0.001116 -0.002647 0.000000 165 107 1
-0.000948 -0.002253 0.085850 -0.000948 -0.002253 0.000000 163 104 6
-0.001003 -0.002385 0.086689 -0.001003 -0.002385 0.000000 159 98 5
-0.000948 -0.002253 0.087529 -0.000948 -0.002253 0.000000 154 99 5
-0.000505 -0.001195 0.088368 -0.000505 -0.001195 0.000000 150 95 4
-0.000505 -0.001195 0.089208 -0.000505 -0.001195 0.000000 146 92 2
-0.000558 -0.001329 0.090048 -0.000558 -0.001329 0.000000 141 87 0
-0.000560 -0.001328 0.090887 -0.000560 -0.001328 0.000000 139 83 2
-0.000505 -0.001195 0.091727 -0.000505 -0.001195 0.000000 132 70 0
-0.000674 -0.001591 0.092566 -0.000674 -0.001591 0.000000 129 63 0
-0.001003 -0.002385 0.093406 -0.001003 -0.002385 0.000000 125 57 0
-0.001173 -0.002777 0.094246 -0.001173 -0.002777 0.000000 124 51 0
-0.001280 -0.003041 0.095085 -0.001280 -0.003041 0.000000 130 53 0
-0.001558 -0.003696 0.095925 -0.001558 -0.003696 0.000000 143 66 5
-0.001889 -0.004478 0.096765 -0.001889 -0.004478 0.000000 162 97 18
-0.001997 -0.004740 0.097604 -0.001997 -0.004740 0.000000 171 115 23
-0.002159 -0.005130 0.098444 -0.002159 -0.005130 0.000000 170 126 31
-0.002102 -0.005000 0.099283 -0.002102 -0.005000 0.000000 167 126 39
-0.002324 -0.005519 0.100123 -0.002324 -0.005519 0.000000 174 136 55
-0.002324 -0.005519 0.100963 -0.002324 -0.005519 0.000000 169 140 53
-0.002270 -0.005389 0.101802 -0.002270 -0.005389 0.000000 168 141 54
-0.002435 -0.005777 0.102642 -0.002435 -0.005777 0.000000 171 144 57
-0.002545 -0.006035 0.103481 -0.002545 -0.006035 0.000000 172 146 59
-0.002545 -0.006035 0.104321 -0.002545 -0.006035 0.000000 170 144 57
-0.002324 -0.005519 0.105161 -0.002324 -0.005519 0.000000 170 145 56
-0.002324 -0.005519 0.106000 -0.002324 -0.005519 0.000000 170 144 56
-0.002270 -0.005389 0.106840 -0.002270 -0.005389 0.000000 170 145 56
-0.002051 -0.004869 0.107679 -0.002051 -0.004869 0.000000 171 151 56
-0.001942 -0.004610 0.108519 -0.001942 -0.004610 0.000000 176 153 59
-0.001449 -0.003434 0.109359 -0.001449 -0.003434 0.000000 178 154 64
-0.001225 -0.002910 0.110198 -0.001225 -0.002910 0.000000 174 151 63
-0.001116 -0.002647 0.111038 -0.001116 -0.002647 0.000000 172 148 59
0.000000 0.000000 0.111877 0.000000 0.000000 0.000000 171 147 61
0.000057 0.000133 0.112717 0.000057 0.000133 0.000000 171 145 58
0.000170 0.000400 0.113557 0.000170 0.000400 0.000000 168 143 54
0.000000 0.000000 0.114396 0.000000 0.000000 0.000000 172 134 53
-0.000112 -0.000266 0.115236 -0.000112 -0.000266 0.000000 163 128 40
-0.000445 -0.001064 0.116075 -0.000445 -0.001064 0.000000 154 112 23
-0.000445 -0.001064 0.116915 -0.000445 -0.001064 0.000000 146 93 8
-0.001003 -0.002384 0.117755 -0.001003 -0.002384 0.000000 144 90 0
-0.001225 -0.002910 0.118594 -0.001225 -0.002910 0.000000 151 98 2
-0.001446 -0.003435 0.119434 -0.001446 -0.003435 0.000000 153 102 0
-0.001666 -0.003958 0.120273 -0.001666 -0.003958 0.000000 147 99 0
-0.001888 -0.004479 0.121113 -0.001888 -0.004479 0.000000 147 93 0
-0.002107 -0.005000 0.121953 -0.002107 -0.005000 0.000000 139 90 1
-0.002379 -0.005648 0.122792 -0.002379 -0.005648 0.000000 137 101 15
-0.002435 -0.005778 0.123632 -0.002435 -0.005778 0.000000 145 118 31
-0.002542 -0.006037 0.124472 -0.002542 -0.006037 0.000000 147 126 38
-0.002599 -0.006165 0.125311 -0.002599 -0.006165 0.000000 148 129 37
-0.003032 -0.007196 0.126151 -0.003032 -0.007196 0.000000 148 135 43
-0.003087 -0.007324 0.126990 -0.003087 -0.007324 0.000000 148 132 38
-0.003087 -0.007324 0.127830 -0.003087 -0.007324 0.000000 147 127 40
-0.003033 -0.007195 0.128670 -0.003033 -0.007195 0.000000 145 123 34
-0.003141 -0.007452 0.129509 -0.003141 -0.007452 0.000000 144 123 32
-0.003301 -0.007837 0.130349 -0.003301 -0.007837 0.000000 145 127 35
-0.002977 -0.007068 0.131188 -0.002977 -0.007068 0.000000 143 117 22
-0.003193 -0.007581 0.132028 -0.003193 -0.007581 0.000000 143 124 31
-0.003195 -0.007581 0.132868 -0.003195 -0.007581 0.000000 142 125 32
-0.003193 -0.007581 0.133707 -0.003193 -0.007581 0.000000 143 127 35
-0.003303 -0.007837 0.134547 -0.003303 -0.007837 0.000000 148 130 46
-0.003196 -0.007580 0.135386 -0.003196 -0.007580 0.000000 147 129 43
-0.003196 -0.007580 0.136226 -0.003196 -0.007580 0.000000 148 132 46
-0.003143 -0.007451 0.137066 -0.003143 -0.007451 0.000000 146 133 47
-0.003196 -0.007580 0.137905 -0.003196 -0.007580 0.000000 146 137 51
-0.002926 -0.006937 0.138745 -0.002926 -0.006937 0.000000 145 134 52
-0.002816 -0.006681 0.139584 -0.002816 -0.006681 0.000000 144 133 54
-0.002653 -0.006295 0.140424 -0.002653 -0.006295 0.000000 146 133 57
-0.002273 -0.005387 0.141264 -0.002273 -0.005387 0.000000 144 128 46
-0.002105 -0.005000 0.142103 -0.002105 -0.005000 0.000000 145 131 45
-0.001832 -0.004349 0.142943 -0.001832 -0.004349 0.000000 144 132 42
-0.001502 -0.003566 0.143782 -0.001502 -0.003566 0.000000 144 132 42
0.000803 0.001882 0.144622 0.000803 0.001882 0.000000 150 103 6
0.001191 0.002818 0.145462 0.001191 0.002818 0.000000 154 104 0
0.000788 0.001876 0.146301 0.000788 0.001876 0.000000 153 100 0
0.000734 0.001740 0.147141 0.000734 0.001740 0.000000 154 100 1
0.000792 0.001875 0.147980 0.000792 0.001875 0.000000 153 105 6
0.000562 0.001338 0.148820 0.000562 0.001338 0.000000 150 97 2
0.000395 0.000935 0.149660 0.000395 0.000935 0.000000 148 91 0
0.000451 0.001069 0.150499 0.000451 0.001069 0.000000 147 87 0
0.000284 0.000667 0.151339 0.000284 0.000667 0.000000 142 80 0
0.000227 0.000533 0.152178 0.000227 0.000533 0.000000 137 75 1
0.000111 0.000268 0.153018 0.000111 0.000268 0.000000 130 68 1
0.000284 0.000667 0.153858 0.000284 0.000667 0.000000 127 66 2
0.000281 0.000668 0.154697 0.000281 0.000668 0.000000 120 65 2
0.000451 0.001069 0.155537 0.000451 0.001069 0.000000 112 58 1
0.000451 0.001069 0.156377 0.000451 0.001069 0.000000 108 53 0
0.001253 0.002955 0.157216 0.001253 0.002955 0.000000 109 42 1
0.001709 0.004041 0.158056 0.001709 0.004041 0.000000 111 37 1
0.002104 0.004995 0.158895 0.002104 0.004995 0.000000 104 32 0
0.002335 0.005543 0.159735 0.002335 0.005543 0.000000 96 38 1
0.002566 0.006092 0.160575 0.002566 0.006092 0.000000 91 44 1
0.002509 0.005954 0.161414 0.002509 0.005954 0.000000 79 53 1
0.002280 0.005405 0.162254 0.002280 0.005405 0.000000 80 58 5
0.002047 0.004858 0.163093 0.002047 0.004858 0.000000 80 64 12
0.002104 0.004995 0.163933 0.002104 0.004995 0.000000 75 61 9
0.002162 0.005131 0.164773 0.002162 0.005131 0.000000 72 59 6
0.002107 0.004994 0.165612 0.002107 0.004994 0.000000 74 60 7
0.001821 0.004312 0.166452 0.001821 0.004312 0.000000 78 62 9
0.001588 0.003768 0.167291 0.001588 0.003768 0.000000 80 63 9
0.001532 0.003632 0.168131 0.001532 0.003632 0.000000 77 63 9
0.001475 0.003496 0.168971 0.001475 0.003496 0.000000 76 63 10
0.001363 0.003224 0.169810 0.001363 0.003224 0.000000 76 64 11
0.001475 0.003496 0.170650 0.001475 0.003496 0.000000 73 59 10
0.001588 0.003768 0.171489 0.001588 0.003768 0.000000 67 52 1
0.001531 0.003632 0.172329 0.001531 0.003632 0.000000 69 50 0
0.001588 0.003768 0.173169 0.001588 0.003768 0.000000 75 53 1
0.001588 0.003768 0.174008 0.001588 0.003768 0.000000 80 56 2
0.001644 0.003904 0.174848 0.001644 0.003904 0.000000 76 55 0
0.001588 0.003768 0.175687 0.001588 0.003768 0.000000 79 56 0
0.001646 0.003903 0.176527 0.001646 0.003903 0.000000 81 58 0
0.001701 0.004040 0.177367 0.001701 0.004040 0.000000 85 62 0
0.001757 0.004177 0.178206 0.001757 0.004177 0.000000 92 66 0
0.001704 0.004039 0.179046 0.001704 0.004039 0.000000 103 71 0
0.001874 0.004449 0.179885 0.001874 0.004449 0.000000 106 69 0
0.002044 0.004860 0.180725 0.002044 0.004860 0.000000 110 71 1
0.002162 0.005131 0.181565 0.002162 0.005131 0.000000 117 73 0
0.002276 0.005406 0.182404 0.002276 0.005406 0.000000 120 76 0
0.002276 0.005406 0.183244 0.002276 0.005406 0.000000 124 79 0
0.001470 0.003502 0.184083 0.001470 0.003502 0.000000 128 86 0
-0.003516 -0.008348 0.184923 -0.003516 -0.008348 0.000000 148 105 1
-0.003786 -0.008986 0.185763 -0.003786 -0.008986 0.000000 152 108 0
-0.003893 -0.009241 0.186602 -0.003893 -0.009241 0.000000 156 110 0
-0.003946 -0.009368 0.187442 -0.003946 -0.009368 0.000000 163 116 4
-0.004322 -0.010254 0.188282 -0.004322 -0.010254 0.000000 167 123 0
-0.004161 -0.009875 0.189121 -0.004161 -0.009875 0.000000 168 127 0
-0.004267 -0.010129 0.189961 -0.004267 -0.010129 0.000000 158 121 0
-0.005880 -0.014851 0.190800 -0.005880 -0.014851 0.000000 126 99 8
0.003004 0.006946 0.191640 0.003004 0.006946 0.000000 107 83 10
0.004122 0.009621 0.192480 0.004122 0.009621 0.000000 64 44 1
0.006249 0.014584 0.193319 0.006249 0.014584 0.000000 45 30 2
-0.024197 -0.058079 0.194159 -0.024197 -0.058079 0.000000 114 94 18
-0.006019 -0.013936 0.194998 -0.006019 -0.013936 0.000000 61 48 6
0.050836 0.119993 0.195838 0.050836 0.119993 0.000000 107 91 23
0.012453 0.028953 0.196678 0.012453 0.028953 0.000000 74 56 5
-0.009408 -0.022424 0.197517 -0.009408 -0.022424 0.000000 90 73 8
0.013592 0.032234 0.198357 0.013592 0.032234 0.000000 54 42 0
0.013649 0.032389 0.199196 0.013649 0.032389 0.000000 53 42 0
0.013517 0.032075 0.200036 0.013517 0.032075 0.000000 52 44 3
0.013649 0.032389 0.200876 0.013649 0.032389 0.000000 52 44 5
-0.007499 -0.015586 0.000210 -0.007499 -0.015586 0.000000 82 72 22
-0.010663 -0.024722 0.001050 -0.010663 -0.024722 0.000000 143 121 50
-0.033687 -0.074585 0.001889 -0.033687 -0.074585 0.000000 109 79 6
-0.042841 -0.094912 0.002729 -0.042841 -0.094912 0.000000 103 79 10
-0.025551 -0.056590 0.003568 -0.025551 -0.056590 0.000000 148 110 11
0.007265 0.017022 0.004408 0.007265 0.017022 0.000000 105 81 11
-0.026392 -0.058216 0.005248 -0.026392 -0.058216 0.000000 111 84 15
-0.022268 -0.049202 0.006087 -0.022268 -0.049202 0.000000 139 98 13
-0.027232 -0.060053 0.006927 -0.027232 -0.060053 0.000000 120 101 43
-0.026237 -0.058306 0.007766 -0.026237 -0.058306 0.000000 89 69 17
-0.025759 -0.056866 0.008606 -0.025759 -0.056866 0.000000 118 67 12
-0.029941 -0.065943 0.009446 -0.029941 -0.065943 0.000000 131 97 29
-0.044851 -0.099382 0.010285 -0.044851 -0.099382 0.000000 167 127 18
-0.014474 -0.031596 0.011125 -0.014474 -0.031596 0.000000 113 89 31
-0.013801 -0.030350 0.011964 -0.013801 -0.030350 0.000000 89 68 10
-0.017818 -0.039116 0.012804 -0.017818 -0.039116 0.000000 126 100 31
-0.033767 -0.075290 0.013644 -0.033767 -0.075290 0.000000 127 94 12
0.000594 0.003032 0.014483 0.000594 0.003032 0.000000 129 108 32
0.101264 0.223403 0.015323 0.101264 0.223403 0.000000 167 156 73
0.016189 0.034726 0.016162 0.016189 0.034726 0.000000 116 98 33
-0.032580 -0.072905 0.017002 -0.032580 -0.072905 0.000000 116 89 22
-0.005583 -0.012382 0.017842 -0.005583 -0.012382 0.000000 119 72 5
-0.005005 -0.011134 0.018681 -0.005005 -0.011134 0.000000 134 79 5
-0.003433 -0.007628 0.019521 -0.003433 -0.007628 0.000000 177 101 0
-0.003494 -0.007754 0.020360 -0.003494 -0.007754 0.000000 179 101 1
-0.003378 -0.007500 0.021200 -0.003378 -0.007500 0.000000 178 99 0
-0.003204 -0.007120 0.022040 -0.003204 -0.007120 0.000000 178 96 0
-0.003494 -0.007754 0.022879 -0.003494 -0.007754 0.000000 174 99 0
-0.003267 -0.007245 0.023719 -0.003267 -0.007245 0.000000 176 99 1
-0.003443 -0.007618 0.024558 -0.003443 -0.007618 0.000000 170 96 1
-0.016219 -0.036361 0.025398 -0.016219 -0.036361 0.000000 110 87 15
-0.025892 -0.057480 0.026238 -0.025892 -0.057480 0.000000 130 94 20
-0.005912 -0.013126 0.027077 -0.005912 -0.013126 0.000000 116 95 21
-0.005471 -0.012136 0.027917 -0.005471 -0.012136 0.000000 108 86 10
-0.005582 -0.012384 0.028756 -0.005582 -0.012384 0.000000 122 99 19
-0.005469 -0.012137 0.029596 -0.005469 -0.012137 0.000000 122 96 18
-0.005360 -0.011888 0.030436 -0.005360 -0.011888 0.000000 120 93 20
-0.004773 -0.010626 0.031275 -0.004773 -0.010626 0.000000 145 103 24
-0.016693 -0.036651 0.032115 -0.016693 -0.036651 0.000000 142 105 27
-0.001999 -0.004431 0.032955 -0.001999 -0.004431 0.000000 185 92 0
-0.002782 -0.006206 0.033794 -0.002782 -0.006206 0.000000 170 96 8
-0.001761 -0.003916 0.034634 -0.001761 -0.003916 0.000000 182 89 0
-0.001938 -0.004303 0.035473 -0.001938 -0.004303 0.000000 182 90 0
-0.001646 -0.003657 0.036313 -0.001646 -0.003657 0.000000 184 90 0
-0.001648 -0.003657 0.037153 -0.001648 -0.003657 0.000000 183 88 0
-0.001533 -0.003397 0.037992 -0.001533 -0.003397 0.000000 183 87 0
-0.001414 -0.003138 0.038832 -0.001414 -0.003138 0.000000 184 86 0
-0.001121 -0.002489 0.039671 -0.001121 -0.002489 0.000000 185 85 0
-0.001121 -0.002489 0.040511 -0.001121 -0.002489 0.000000 180 84 1
-0.001063 -0.002359 0.041351 -0.001063 -0.002359 0.000000 178 83 0
-0.000942 -0.002099 0.042190 -0.000942 -0.002099 0.000000 181 82 0
-0.000764 -0.001707 0.043030 -0.000764 -0.001707 0.000000 184 83 0
-0.000884 -0.001968 0.043869 -0.000884 -0.001968 0.000000 182 85 1
-0.000175 -0.000396 0.044709 -0.000175 -0.000396 0.000000 180 77 0
-0.004168 -0.009203 0.045549 -0.004168 -0.009203 0.000000 129 87 8
-0.004015 -0.008956 0.046388 -0.004015 -0.008956 0.000000 128 86 9
-0.005190 -0.011516 0.047228 -0.005190 -0.011516 0.000000 109 88 14
-0.004845 -0.010769 0.048067 -0.004845 -0.010769 0.000000 107 85 11
-0.005689 -0.012610 0.048907 -0.005689 -0.012610 0.000000 104 82 9
-0.005695 -0.012608 0.049747 -0.005695 -0.012608 0.000000 100 79 9
-0.005079 -0.011267 0.050586 -0.005079 -0.011267 0.000000 92 72 11
-0.004689 -0.010391 0.051426 -0.004689 -0.010391 0.000000 76 57 2
-0.005024 -0.011142 0.052265 -0.005024 -0.011142 0.000000 64 47 0
-0.014359 -0.031520 0.053105 -0.014359 -0.031520 0.000000 78 65 8
-0.016059 -0.036083 0.053945 -0.016059 -0.036083 0.000000 85 73 7
-0.010709 -0.023399 0.054784 -0.010709 -0.023399 0.000000 88 67 9
-0.009467 -0.020683 0.055624 -0.009467 -0.020683 0.000000 90 67 10
-0.028307 -0.061984 0.056463 -0.028307 -0.061984 0.000000 99 87 18
-0.005914 -0.012817 0.057303 -0.005914 -0.012817 0.000000 93 50 5
-0.002526 -0.005542 0.058143 -0.002526 -0.005542 0.000000 99 66 6
-0.016824 -0.036693 0.058982 -0.016824 -0.036693 0.000000 114 73 10
0.000566 0.001189 0.059822 0.000566 0.001189 0.000000 127 71 6
-0.001006 -0.002227 0.060661 -0.001006 -0.002227 0.000000 147 73 0
-0.001005 -0.002228 0.061501 -0.001005 -0.002228 0.000000 145 71 0
-0.001063 -0.002359 0.062341 -0.001063 -0.002359 0.000000 139 70 1
-0.001063 -0.002359 0.063180 -0.001063 -0.002359 0.000000 136 66 2
-0.001063 -0.002359 0.064020 -0.001063 -0.002359 0.000000 134 60 0
-0.001122 -0.002489 0.064860 -0.001122 -0.002489 0.000000 134 57 0
-0.001180 -0.002619 0.065699 -0.001180 -0.002619 0.000000 136 54 0
-0.001180 -0.002619 0.066539 -0.001180 -0.002619 0.000000 142 54 0
-0.001180 -0.002619 0.067378 -0.001180 -0.002619 0.000000 142 60 3
-0.001179 -0.002620 0.068218 -0.001179 -0.002620 0.000000 144 62 3
-0.001296 -0.002880 0.069058 -0.001296 -0.002880 0.000000 143 61 2
-0.001238 -0.002750 0.069897 -0.001238 -0.002750 0.000000 147 69 3
-0.001296 -0.002880 0.070737 -0.001296 -0.002880 0.000000 149 74 4
-0.001296 -0.002880 0.071576 -0.001296 -0.002880 0.000000 152 84 9
-0.001180 -0.002619 0.072416 -0.001180 -0.002619 0.000000 159 100 15
-0.001122 -0.002489 0.073256 -0.001122 -0.002489 0.000000 162 109 19
-0.000944 -0.002099 0.074095 -0.000944 -0.002099 0.000000 165 124 36
-0.001063 -0.002359 0.074935 -0.001063 -0.002359 0.000000 162 120 32
-0.001180 -0.002619 0.075774 -0.001180 -0.002619 0.000000 154 109 23
-0.001296 -0.002879 0.076614 -0.001296 -0.002879 0.000000 146 100 13
-0.001414 -0.003139 0.077454 -0.001414 -0.003139 0.000000 138 91 3
-0.001881 -0.004174 0.078293 -0.001881 -0.004174 0.000000 148 93 1
-0.001881 -0.004174 0.079133 -0.001881 -0.004174 0.000000 157 101 5
-0.001881 -0.004174 0.079972 -0.001881 -0.004174 0.000000 158 103 4
-0.002173 -0.004817 0.080812 -0.002173 -0.004817 0.000000 162 106 0
-0.001882 -0.004173 0.081652 -0.001882 -0.004173 0.000000 165 105 1
-0.001940 -0.004302 0.082491 -0.001940 -0.004302 0.000000 166 109 0
-0.001882 -0.004173 0.083331 -0.001882 -0.004173 0.000000 169 113 1
-0.001649 -0.003656 0.084170 -0.001649 -0.003656 0.000000 166 109 0
-0.001533 -0.003397 0.085010 -0.001533 -0.003397 0.000000 165 108 0
-0.001414 -0.003139 0.085850 -0.001414 -0.003139 0.000000 167 108 7
-0.001299 -0.002878 0.086689 -0.001299 -0.002878 0.000000 162 102 6
-0.001122 -0.002489 0.087529 -0.001122 -0.002489 0.000000 155 101 5
-0.001005 -0.002228 0.088368 -0.001005 -0.002228 0.000000 153 99 5
-0.000652 -0.001444 0.089208 -0.000652 -0.001444 0.000000 147 94 2
-0.000534 -0.001183 0.090048 -0.000534 -0.001183 0.000000 141 87 0
-0.000534 -0.001183 0.090887 -0.000534 -0.001183 0.000000 139 82 1
-0.000474 -0.001052 0.091727 -0.000474 -0.001052 0.000000 131 70 0
-0.000474 -0.001052 0.092566 -0.000474 -0.001052 0.000000 129 62 0
-0.001180 -0.002619 0.093406 -0.001180 -0.002619 0.000000 124 58 0
-0.001241 -0.002748 0.094246 -0.001241 -0.002748 0.000000 123 50 0
-0.001414 -0.003139 0.095085 -0.001414 -0.003139 0.000000 129 52 0
-0.001589 -0.003528 0.095925 -0.001589 -0.003528 0.000000 142 64 4
-0.001822 -0.004045 0.096765 -0.001822 -0.004045 0.000000 159 88 12
-0.001651 -0.003655 0.097604 -0.001651 -0.003655 0.000000 155 87 5
-0.002054 -0.004561 0.098444 -0.002054 -0.004561 0.000000 167 117 23
-0.002054 -0.004561 0.099283 -0.002054 -0.004561 0.000000 167 123 36
-0.001940 -0.004302 0.100123 -0.001940 -0.004302 0.000000 165 125 45
-0.002287 -0.005074 0.100963 -0.002287 -0.005074 0.000000 167 138 52
-0.002286 -0.005075 0.101802 -0.002286 -0.005075 0.000000 167 140 53
-0.002231 -0.004946 0.102642 -0.002231 -0.004946 0.000000 168 141 54
-0.002172 -0.004818 0.103481 -0.002172 -0.004818 0.000000 168 141 53
-0.002057 -0.004559 0.104321 -0.002057 -0.004559 0.000000 171 145 55
-0.002227 -0.004947 0.105161 -0.002227 -0.004947 0.000000 171 146 57
-0.002341 -0.005204 0.106000 -0.002341 -0.005204 0.000000 170 145 56
-0.002111 -0.004689 0.106840 -0.002111 -0.004689 0.000000 173 148 57
-0.001533 -0.003397 0.107679 -0.001533 -0.003397 0.000000 179 155 64
-0.001533 -0.003397 0.108519 -0.001533 -0.003397 0.000000 179 155 64
-0.001296 -0.002880 0.109359 -0.001296 -0.002880 0.000000 178 154 66
-0.001122 -0.002489 0.110198 -0.001122 -0.002489 0.000000 174 150 63
-0.000595 -0.001309 0.111038 -0.000595 -0.001309 0.000000 171 148 62
0.000359 0.000792 0.111877 0.000359 0.000792 0.000000 172 146 61
0.000359 0.000792 0.112717 0.000359 0.000792 0.000000 170 144 57
0.000359 0.000792 0.113557 0.000359 0.000792 0.000000 168 143 53
0.000300 0.000660 0.114396 0.000300 0.000660 0.000000 172 135 52
0.000297 0.000661 0.115236 0.000297 0.000661 0.000000 165 132 44
0.000002 -0.000000 0.116075 0.000002 -0.000000 0.000000 156 121 31
-0.000710 -0.001576 0.116915 -0.000710 -0.001576 0.000000 142 90 4
-0.000532 -0.001183 0.117755 -0.000532 -0.001183 0.000000 140 82 0
-0.001063 -0.002359 0.118594 -0.001063 -0.002359 0.000000 151 97 2
-0.001180 -0.002619 0.119434 -0.001180 -0.002619 0.000000 155 104 3
-0.001648 -0.003657 0.120273 -0.001648 -0.003657 0.000000 148 100 0
-0.001995 -0.004432 0.121113 -0.001995 -0.004432 0.000000 147 92 0
-0.002113 -0.004689 0.121953 -0.002113 -0.004689 0.000000 140 90 0
-0.002400 -0.005332 0.122792 -0.002400 -0.005332 0.000000 136 98 12
-0.002576 -0.005716 0.123632 -0.002576 -0.005716 0.000000 145 118 31
-0.002462 -0.005459 0.124472 -0.002462 -0.005459 0.000000 144 117 27
-0.002576 -0.005716 0.125311 -0.002576 -0.005716 0.000000 147 123 30
-0.002805 -0.006228 0.126151 -0.002805 -0.006228 0.000000 147 124 30
-0.002921 -0.006483 0.126990 -0.002921 -0.006483 0.000000 145 123 28
-0.003038 -0.006737 0.127830 -0.003038 -0.006737 0.000000 147 122 32
-0.003152 -0.006991 0.128670 -0.003152 -0.006991 0.000000 145 122 32
-0.003152 -0.006991 0.129509 -0.003152 -0.006991 0.000000 144 119 26
-0.003152 -0.006991 0.130349 -0.003152 -0.006991 0.000000 144 117 23
-0.003152 -0.006991 0.131188 -0.003152 -0.006991 0.000000 143 117 22
-0.003151 -0.006992 0.132028 -0.003151 -0.006992 0.000000 143 118 23
-0.003209 -0.007119 0.132868 -0.003209 -0.007119 0.000000 141 119 25
-0.003209 -0.007119 0.133707 -0.003209 -0.007119 0.000000 141 120 26
-0.003094 -0.006864 0.134547 -0.003094 -0.006864 0.000000 143 120 25
-0.003036 -0.006738 0.135386 -0.003036 -0.006738 0.000000 143 120 26
-0.003152 -0.006991 0.136226 -0.003152 -0.006991 0.000000 145 127 37
-0.003036 -0.006738 0.137066 -0.003036 -0.006738 0.000000 144 126 37
-0.002865 -0.006355 0.137905 -0.002865 -0.006355 0.000000 143 125 39
-0.002746 -0.006100 0.138745 -0.002746 -0.006100 0.000000 144 126 43
-0.002748 -0.006100 0.139584 -0.002748 -0.006100 0.000000 144 129 50
-0.002576 -0.005716 0.140424 -0.002576 -0.005716 0.000000 146 128 49
-0.002459 -0.005461 0.141264 -0.002459 -0.005461 0.000000 146 130 50
-0.002115 -0.004688 0.142103 -0.002115 -0.004688 0.000000 144 129 40
-0.001995 -0.004432 0.142943 -0.001995 -0.004432 0.000000 145 133 44
-0.001531 -0.003398 0.143782 -0.001531 -0.003398 0.000000 143 131 40
0.000004 0.000017 0.144622 0.000004 0.000017 0.000000 145 108 16
0.001319 0.002922 0.145462 0.001319 0.002922 0.000000 155 105 0
0.001197 0.002655 0.146301 0.001197 0.002655 0.000000 157 106 1
0.001256 0.002789 0.147141 0.001256 0.002789 0.000000 160 110 4
0.001137 0.002521 0.147980 0.001137 0.002521 0.000000 157 111 9
0.001015 0.002255 0.148820 0.001015 0.002255 0.000000 155 105 6
0.000897 0.001988 0.149660 0.000897 0.001988 0.000000 153 100 3
0.000958 0.002121 0.150499 0.000958 0.002121 0.000000 151 96 2
0.000895 0.001989 0.151339 0.000895 0.001989 0.000000 148 89 1
0.000775 0.001722 0.152178 0.000775 0.001722 0.000000 143 83 1
0.000777 0.001721 0.153018 0.000777 0.001721 0.000000 135 76 1
0.000895 0.001988 0.153858 0.000895 0.001988 0.000000 126 69 0
0.001258 0.002789 0.154697 0.001258 0.002789 0.000000 119 53 0
0.001317 0.002923 0.155537 0.001317 0.002923 0.000000 111 46 0
0.001679 0.003729 0.156377 0.001679 0.003729 0.000000 114 44 1
0.002410 0.005347 0.157216 0.002410 0.005347 0.000000 123 40 3
0.002350 0.005212 0.158056 0.002350 0.005212 0.000000 118 36 2
0.002532 0.005619 0.158895 0.002532 0.005619 0.000000 110 35 1
0.002715 0.006027 0.159735 0.002715 0.006027 0.000000 100 39 1
0.002777 0.006163 0.160575 0.002777 0.006163 0.000000 92 44 2
0.002715 0.006027 0.161414 0.002715 0.006027 0.000000 78 53 1
0.002653 0.005892 0.162254 0.002653 0.005892 0.000000 79 56 5
0.002166 0.004806 0.163093 0.002166 0.004806 0.000000 80 64 12
0.002166 0.004806 0.163933 0.002166 0.004806 0.000000 76 61 9
0.002410 0.005347 0.164773 0.002410 0.005347 0.000000 72 59 6
0.002410 0.005347 0.165612 0.002410 0.005347 0.000000 73 60 6
0.002165 0.004808 0.166452 0.002165 0.004808 0.000000 77 61 7
0.001680 0.003728 0.167291 0.001680 0.003728 0.000000 80 63 9
0.001740 0.003863 0.168131 0.001740 0.003863 0.000000 75 62 8
0.001680 0.003728 0.168971 0.001680 0.003728 0.000000 75 62 9
0.001801 0.003997 0.169810 0.001801 0.003997 0.000000 75 62 10
0.001863 0.004131 0.170650 0.001863 0.004131 0.000000 72 58 7
0.001922 0.004266 0.171489 0.001922 0.004266 0.000000 68 52 1
0.001861 0.004132 0.172329 0.001861 0.004132 0.000000 67 49 0
0.001799 0.003998 0.173169 0.001799 0.003998 0.000000 73 52 0
0.001740 0.003863 0.174008 0.001740 0.003863 0.000000 79 55 1
0.001740 0.003863 0.174848 0.001740 0.003863 0.000000 76 55 0
0.001740 0.003863 0.175687 0.001740 0.003863 0.000000 78 56 0
0.001741 0.003862 0.176527 0.001741 0.003862 0.000000 81 58 0
0.001863 0.004131 0.177367 0.001863 0.004131 0.000000 83 60 0
0.001740 0.003863 0.178206 0.001740 0.003863 0.000000 95 68 0
0.002044 0.004536 0.179046 0.002044 0.004536 0.000000 97 66 0
0.002348 0.005212 0.179885 0.002348 0.005212 0.000000 98 62 0
0.002286 0.005077 0.180725 0.002286 0.005077 0.000000 107 68 1
0.002164 0.004807 0.181565 0.002164 0.004807 0.000000 117 74 0
0.002594 0.005754 0.182404 0.002594 0.005754 0.000000 120 75 0
0.002594 0.005754 0.183244 0.002594 0.005754 0.000000 124 78 0
0.002116 0.004676 0.184083 0.002116 0.004676 0.000000 128 83 0
-0.003722 -0.008260 0.184923 -0.003722 -0.008260 0.000000 146 104 2
-0.003778 -0.008386 0.185763 -0.003778 -0.008386 0.000000 151 106 0
-0.004064 -0.009015 0.186602 -0.004064 -0.009015 0.000000 157 111 0
-0.004007 -0.008889 0.187442 -0.004007 -0.008889 0.000000 164 117 3
-0.004289 -0.009519 0.188282 -0.004289 -0.009519 0.000000 172 126 0
-0.004122 -0.009141 0.189121 -0.004122 -0.009141 0.000000 171 129 0
-0.004178 -0.009267 0.189961 -0.004178 -0.009267 0.000000 165 126 1
-0.011370 -0.024765 0.190800 -0.011370 -0.024765 0.000000 151 117 10
0.001482 0.003614 0.191640 0.001482 0.003614 0.000000 94 73 9
0.010989 0.024375 0.192480 0.010989 0.024375 0.000000 65 45 0
0.005030 0.010976 0.193319 0.005030 0.010976 0.000000 58 41 1
-0.002082 -0.004535 0.194159 -0.002082 -0.004535 0.000000 64 51 5
-0.023435 -0.051669 0.194998 -0.023435 -0.051669 0.000000 104 90 20
0.025478 0.054884 0.195838 0.025478 0.054884 0.000000 117 100 22
-0.023046 -0.050907 0.196678 -0.023046 -0.050907 0.000000 100 86 18
-0.017153 -0.038395 0.197517 -0.017153 -0.038395 0.000000 107 89 15
0.000507 0.000611 0.198357 0.000507 0.000611 0.000000 72 60 7
0.014302 0.031733 0.199196 0.014302 0.031733 0.000000 52 42 0
0.014585 0.032355 0.200036 0.014585 0.032355 0.000000 53 45 3
0.014579 0.032357 0.200876 0.014579 0.032357 0.000000 53 45 5
-0.005454 -0.010916 0.000210 -0.005454 -0.010916 0.000000 100 81 18
0.042074 0.087302 0.001050 0.042074 0.087302 0.000000 54 52 14
0.032060 0.066768 0.001889 0.032060 0.066768 0.000000 115 108 54
-0.001658 -0.002328 0.002729 -0.001658 -0.002328 0.000000 115 100 32
0.004114 0.009492 0.003568 0.004114 0.009492 0.000000 96 77 11
0.002932 0.006413 0.004408 0.002932 0.006413 0.000000 83 58 11
-0.015879 -0.032986 0.005248 -0.015879 -0.032986 0.000000 107 82 24
0.004142 0.009538 0.006087 0.004142 0.009538 0.000000 90 71 11
0.000213 0.001482 0.006927 0.000213 0.001482 0.000000 104 87 29
-0.000185 0.000656 0.007766 -0.000185 0.000656 0.000000 94 74 8
0.013205 0.028072 0.008606 0.013205 0.028072 0.000000 54 44 7
0.028107 0.058402 0.009446 0.028107 0.058402 0.000000 43 43 14
-0.000340 0.000303 0.010285 -0.000340 0.000303 0.000000 54 42 3
-0.001255 -0.001572 0.011125 -0.001255 -0.001572 0.000000 64 52 10
-0.005999 -0.011303 0.011964 -0.005999 -0.011303 0.000000 64 55 12
0.018617 0.039121 0.012804 0.018617 0.039121 0.000000 62 56 15
-0.007483 -0.014355 0.013644 -0.007483 -0.014355 0.000000 81 67 12
0.009663 0.020770 0.014483 0.009663 0.020770 0.000000 74 69 30
0.016476 0.034725 0.015323 0.016476 0.034725 0.000000 67 56 4
0.046714 0.096667 0.016162 0.046714 0.096667 0.000000 85 70 19
0.001985 0.005021 0.017002 0.001985 0.005021 0.000000 73 54 3
-0.003180 -0.005571 0.017842 -0.003180 -0.005571 0.000000 102 63 6
0.001872 0.004775 0.018681 0.001872 0.004775 0.000000 75 54 5
-0.015828 -0.032035 0.019521 -0.015828 -0.032035 0.000000 85 58 6
-0.004642 -0.009642 0.020360 -0.004642 -0.009642 0.000000 154 89 3
0.003210 0.006976 0.021200 0.003210 0.006976 0.000000 112 68 3
0.011988 0.025501 0.022040 0.011988 0.025501 0.000000 99 63 6
-0.004884 -0.010131 0.022879 -0.004884 -0.010131 0.000000 140 83 3
-0.002715 -0.005651 0.023719 -0.002715 -0.005651 0.000000 184 95 3
-0.002715 -0.005651 0.024558 -0.002715 -0.005651 0.000000 182 93 2
-0.002775 -0.005778 0.025398 -0.002775 -0.005778 0.000000 181 93 3
-0.002715 -0.005651 0.026238 -0.002715 -0.005651 0.000000 182 93 3
0.012293 0.026081 0.027077 0.012293 0.026081 0.000000 111 64 0
0.011363 0.024170 0.027917 0.011363 0.024170 0.000000 96 67 8
0.003817 0.008216 0.028756 0.003817 0.008216 0.000000 131 82 7
-0.004539 -0.009508 0.029596 -0.004539 -0.009508 0.000000 159 105 14
-0.003260 -0.006756 0.030436 -0.003260 -0.006756 0.000000 168 96 6
-0.002229 -0.004635 0.031275 -0.002229 -0.004635 0.000000 183 92 0
-0.002228 -0.004636 0.032115 -0.002228 -0.004636 0.000000 183 93 0
-0.002045 -0.004254 0.032955 -0.002045 -0.004254 0.000000 186 92 0
-0.001855 -0.003872 0.033794 -0.001855 -0.003872 0.000000 184 91 0
-0.001612 -0.003360 0.034634 -0.001612 -0.003360 0.000000 184 87 0
-0.001675 -0.003487 0.035473 -0.001675 -0.003487 0.000000 183 87 0
-0.001491 -0.003103 0.036313 -0.001491 -0.003103 0.000000 186 88 0
-0.001737 -0.003616 0.037153 -0.001737 -0.003616 0.000000 183 88 0
-0.001737 -0.003616 0.037992 -0.001737 -0.003616 0.000000 183 87 0
-0.001244 -0.002589 0.038832 -0.001244 -0.002589 0.000000 185 85 0
-0.001182 -0.002461 0.039671 -0.001182 -0.002461 0.000000 185 85 0
-0.001120 -0.002332 0.040511 -0.001120 -0.002332 0.000000 179 84 0
-0.000744 -0.001557 0.041351 -0.000744 -0.001557 0.000000 176 80 1
-0.009290 -0.019063 0.042190 -0.009290 -0.019063 0.000000 169 87 5
-0.011411 -0.023396 0.043030 -0.011411 -0.023396 0.000000 152 91 7
-0.010650 -0.021883 0.043869 -0.010650 -0.021883 0.000000 99 69 11
0.019643 0.040568 0.044709 0.019643 0.040568 0.000000 74 45 3
-0.007174 -0.014898 0.045549 -0.007174 -0.014898 0.000000 109 90 9
-0.006826 -0.014162 0.046388 -0.006826 -0.014162 0.000000 110 90 10
-0.018157 -0.037398 0.047228 -0.018157 -0.037398 0.000000 114 94 16
0.000049 -0.000080 0.048067 0.000049 -0.000080 0.000000 87 70 10
-0.002821 -0.005456 0.048907 -0.002821 -0.005456 0.000000 91 74 10
-0.010460 -0.021597 0.049747 -0.010460 -0.021597 0.000000 103 85 12
-0.015315 -0.031532 0.050586 -0.015315 -0.031532 0.000000 99 82 11
-0.005355 -0.011138 0.051426 -0.005355 -0.011138 0.000000 78 59 4
-0.006002 -0.012466 0.052265 -0.006002 -0.012466 0.000000 66 49 0
-0.011469 -0.023558 0.053105 -0.011469 -0.023558 0.000000 84 58 7
0.001938 0.004029 0.053945 0.001938 0.004029 0.000000 95 55 6
-0.005136 -0.010465 0.054784 -0.005136 -0.010465 0.000000 91 44 3
0.018056 0.036893 0.055624 0.018056 0.036893 0.000000 101 57 13
0.002351 0.005121 0.056463 0.002351 0.005121 0.000000 99 60 12
-0.013036 -0.026653 0.057303 -0.013036 -0.026653 0.000000 95 58 8
-0.011103 -0.022845 0.058143 -0.011103 -0.022845 0.000000 90 65 5
-0.007205 -0.015011 0.058982 -0.007205 -0.015011 0.000000 114 74 5
-0.016342 -0.033218 0.059822 -0.016342 -0.033218 0.000000 116 66 8
-0.001059 -0.002203 0.060661 -0.001059 -0.002203 0.000000 147 73 0
-0.000750 -0.001557 0.061501 -0.000750 -0.001557 0.000000 154 70 0
-0.000997 -0.002074 0.062341 -0.000997 -0.002074 0.000000 143 68 0
-0.000997 -0.002074 0.063180 -0.000997 -0.002074 0.000000 139 63 2
-0.001183 -0.002460 0.064020 -0.001183 -0.002460 0.000000 134 63 0
-0.001058 -0.002204 0.064860 -0.001058 -0.002204 0.000000 135 55 0
-0.001244 -0.002589 0.065699 -0.001244 -0.002589 0.000000 136 54 0
-0.001182 -0.002461 0.066539 -0.001182 -0.002461 0.000000 143 55 0
-0.001244 -0.002589 0.067378 -0.001244 -0.002589 0.000000 142 60 3
-0.001120 -0.002332 0.068218 -0.001120 -0.002332 0.000000 145 65 2
-0.001122 -0.002331 0.069058 -0.001122 -0.002331 0.000000 145 67 1
-0.001183 -0.002460 0.069897 -0.001183 -0.002460 0.000000 147 72 3
-0.001244 -0.002589 0.070737 -0.001244 -0.002589 0.000000 150 80 6
-0.001244 -0.002589 0.071576 -0.001244 -0.002589 0.000000 155 91 12
-0.001058 -0.002204 0.072416 -0.001058 -0.002204 0.000000 163 112 19
-0.001122 -0.002331 0.073256 -0.001122 -0.002331 0.000000 164 113 20
-0.000997 -0.002074 0.074095 -0.000997 -0.002074 0.000000 167 126 38
-0.001244 -0.002589 0.074935 -0.001244 -0.002589 0.000000 157 112 28
-0.001553 -0.003231 0.075774 -0.001553 -0.003231 0.000000 145 94 13
-0.001862 -0.003870 0.076614 -0.001862 -0.003870 0.000000 140 86 3
-0.001801 -0.003742 0.077454 -0.001801 -0.003742 0.000000 139 86 0
-0.001984 -0.004125 0.078293 -0.001984 -0.004125 0.000000 148 93 1
-0.001983 -0.004127 0.079133 -0.001983 -0.004127 0.000000 157 101 5
-0.002166 -0.004509 0.079972 -0.002166 -0.004509 0.000000 161 104 2
-0.002289 -0.004763 0.080812 -0.002289 -0.004763 0.000000 162 106 0
-0.002228 -0.004636 0.081652 -0.002228 -0.004636 0.000000 164 107 0
-0.002228 -0.004636 0.082491 -0.002228 -0.004636 0.000000 167 111 1
-0.002166 -0.004509 0.083331 -0.002166 -0.004509 0.000000 169 113 2
-0.002104 -0.004382 0.084170 -0.002104 -0.004382 0.000000 167 112 0
-0.001862 -0.003870 0.085010 -0.001862 -0.003870 0.000000 166 109 1
-0.001616 -0.003359 0.085850 -0.001616 -0.003359 0.000000 167 109 6
-0.001553 -0.003231 0.086689 -0.001553 -0.003231 0.000000 164 105 7
-0.001432 -0.002973 0.087529 -0.001432 -0.002973 0.000000 157 104 6
-0.001244 -0.002589 0.088368 -0.001244 -0.002589 0.000000 155 102 6
-0.001059 -0.002202 0.089208 -0.001059 -0.002202 0.000000 151 98 4
-0.000748 -0.001557 0.090048 -0.000748 -0.001557 0.000000 144 90 1
-0.000438 -0.000910 0.090887 -0.000438 -0.000910 0.000000 138 81 0
-0.000500 -0.001040 0.091727 -0.000500 -0.001040 0.000000 131 70 0
-0.000623 -0.001300 0.092566 -0.000623 -0.001300 0.000000 129 62 0
-0.000806 -0.001688 0.093406 -0.000806 -0.001688 0.000000 126 57 0
-0.001242 -0.002590 0.094246 -0.001242 -0.002590 0.000000 124 51 0
-0.001305 -0.002718 0.095085 -0.001305 -0.002718 0.000000 128 49 0
-0.001307 -0.002718 0.095925 -0.001307 -0.002718 0.000000 137 52 0
-0.001369 -0.002845 0.096765 -0.001369 -0.002845 0.000000 146 63 1
-0.001792 -0.003743 0.097604 -0.001792 -0.003743 0.000000 161 96 12
-0.001675 -0.003487 0.098444 -0.001675 -0.003487 0.000000 154 96 7
-0.001799 -0.003743 0.099283 -0.001799 -0.003743 0.000000 156 112 24
-0.001921 -0.003999 0.100123 -0.001921 -0.003999 0.000000 162 123 42
-0.001675 -0.003487 0.100963 -0.001675 -0.003487 0.000000 161 133 48
-0.001858 -0.003872 0.101802 -0.001858 -0.003872 0.000000 165 137 51
-0.001794 -0.003744 0.102642 -0.001794 -0.003744 0.000000 169 142 55
-0.001734 -0.003616 0.103481 -0.001734 -0.003616 0.000000 174 147 60
-0.001794 -0.003744 0.104321 -0.001794 -0.003744 0.000000 175 150 61
-0.001552 -0.003232 0.105161 -0.001552 -0.003232 0.000000 179 154 64
-0.001553 -0.003231 0.106000 -0.001553 -0.003231 0.000000 180 156 66
-0.001429 -0.002975 0.106840 -0.001429 -0.002975 0.000000 180 157 67
-0.001366 -0.002847 0.107679 -0.001366 -0.002847 0.000000 180 156 67
-0.001119 -0.002333 0.108519 -0.001119 -0.002333 0.000000 180 156 69
-0.001059 -0.002202 0.109359 -0.001059 -0.002202 0.000000 177 154 67
-0.000675 -0.001424 0.110198 -0.000675 -0.001424 0.000000 175 151 65
0.000071 0.000134 0.111038 0.000071 0.000134 0.000000 174 149 64
0.000566 0.001177 0.111877 0.000566 0.001177 0.000000 172 146 61
0.000692 0.001439 0.112717 0.000692 0.001439 0.000000 171 145 57
0.000692 0.001439 0.113557 0.000692 0.001439 0.000000 168 143 52
0.000440 0.000914 0.114396 0.000440 0.000914 0.000000 173 136 52
0.000313 0.000653 0.115236 0.000313 0.000653 0.000000 165 132 44
-0.000063 -0.000130 0.116075 -0.000063 -0.000130 0.000000 155 120 31
-0.000496 -0.001041 0.116915 -0.000496 -0.001041 0.000000 146 93 8
-0.000500 -0.001040 0.117755 -0.000500 -0.001040 0.000000 140 81 0
-0.000683 -0.001429 0.118594 -0.000683 -0.001429 0.000000 148 90 1
-0.001307 -0.002718 0.119434 -0.001307 -0.002718 0.000000 155 104 3
-0.001676 -0.003487 0.120273 -0.001676 -0.003487 0.000000 148 100 0
-0.001737 -0.003615 0.121113 -0.001737 -0.003615 0.000000 152 97 2
-0.001922 -0.003998 0.121953 -0.001922 -0.003998 0.000000 145 93 1
-0.002166 -0.004509 0.122792 -0.002166 -0.004509 0.000000 135 90 0
-0.002348 -0.004891 0.123632 -0.002348 -0.004891 0.000000 137 101 13
-0.002532 -0.005271 0.124472 -0.002532 -0.005271 0.000000 143 114 24
-0.002712 -0.005652 0.125311 -0.002712 -0.005652 0.000000 146 122 31
-0.002712 -0.005652 0.126151 -0.002712 -0.005652 0.000000 146 119 23
-0.002835 -0.005904 0.126990 -0.002835 -0.005904 0.000000 147 121 23
-0.002897 -0.006031 0.127830 -0.002897 -0.006031 0.000000 150 117 23
-0.003201 -0.006661 0.128670 -0.003201 -0.006661 0.000000 146 119 28
-0.003138 -0.006536 0.129509 -0.003138 -0.006536 0.000000 147 117 23
-0.003200 -0.006661 0.130349 -0.003200 -0.006661 0.000000 146 116 21
-0.003260 -0.006787 0.131188 -0.003260 -0.006787 0.000000 144 116 20
-0.003381 -0.007039 0.132028 -0.003381 -0.007039 0.000000 142 119 24
-0.003200 -0.006660 0.132868 -0.003200 -0.006660 0.000000 143 116 21
-0.003260 -0.006787 0.133707 -0.003260 -0.006787 0.000000 142 118 24
-0.003201 -0.006661 0.134547 -0.003201 -0.006661 0.000000 142 118 22
-0.003201 -0.006661 0.135386 -0.003201 -0.006661 0.000000 143 120 26
-0.003201 -0.006661 0.136226 -0.003201 -0.006661 0.000000 144 124 31
-0.003078 -0.006410 0.137066 -0.003078 -0.006410 0.000000 143 123 32
-0.002898 -0.006030 0.137905 -0.002898 -0.006030 0.000000 142 122 34
-0.002775 -0.005778 0.138745 -0.002775 -0.005778 0.000000 143 122 39
-0.002532 -0.005271 0.139584 -0.002532 -0.005271 0.000000 141 120 34
-0.002472 -0.005144 0.140424 -0.002472 -0.005144 0.000000 145 123 38
-0.001981 -0.004127 0.141264 -0.001981 -0.004127 0.000000 137 120 24
-0.001858 -0.003871 0.142103 -0.001858 -0.003871 0.000000 139 121 25
-0.001798 -0.003743 0.142943 -0.001798 -0.003743 0.000000 142 127 34
-0.000792 -0.001676 0.143782 -0.000792 -0.001676 0.000000 144 118 27
0.000768 0.001579 0.144622 0.000768 0.001579 0.000000 150 105 7
0.001579 0.003287 0.145462 0.001579 0.003287 0.000000 158 108 1
0.001706 0.003553 0.146301 0.001706 0.003553 0.000000 163 115 7
0.001516 0.003154 0.147141 0.001516 0.003154 0.000000 162 114 7
0.001390 0.002889 0.147980 0.001390 0.002889 0.000000 159 115 11
0.001263 0.002625 0.148820 0.001263 0.002625 0.000000 157 109 7
0.001261 0.002625 0.149660 0.001261 0.002625 0.000000 157 106 6
0.001201 0.002492 0.150499 0.001201 0.002492 0.000000 153 99 3
0.001201 0.002492 0.151339 0.001201 0.002492 0.000000 150 93 2
0.001138 0.002360 0.152178 0.001138 0.002360 0.000000 146 88 3
0.001201 0.002492 0.153018 0.001201 0.002492 0.000000 141 83 1
0.001582 0.003287 0.153858 0.001582 0.003287 0.000000 133 75 0
0.001771 0.003685 0.154697 0.001771 0.003685 0.000000 126 55 3
0.001904 0.003951 0.155537 0.001904 0.003951 0.000000 117 45 0
0.002220 0.004617 0.156377 0.002220 0.004617 0.000000 119 43 1
0.002604 0.005422 0.157216 0.002604 0.005422 0.000000 123 40 3
0.002734 0.005689 0.158056 0.002734 0.005689 0.000000 122 37 2
0.002798 0.005823 0.158895 0.002798 0.005823 0.000000 113 37 2
0.002864 0.005958 0.159735 0.002864 0.005958 0.000000 100 39 1
0.002927 0.006093 0.160575 0.002927 0.006093 0.000000 92 44 2
0.002926 0.006093 0.161414 0.002926 0.006093 0.000000 78 52 1
0.002862 0.005958 0.162254 0.002862 0.005958 0.000000 78 56 4
0.002544 0.005286 0.163093 0.002544 0.005286 0.000000 79 62 10
0.002283 0.004751 0.163933 0.002283 0.004751 0.000000 76 61 9
0.002540 0.005287 0.164773 0.002540 0.005287 0.000000 72 59 6
0.002540 0.005287 0.165612 0.002540 0.005287 0.000000 73 60 6
0.002350 0.004885 0.166452 0.002350 0.004885 0.000000 77 61 7
0.001835 0.003818 0.167291 0.001835 0.003818 0.000000 79 62 8
0.001962 0.004085 0.168131 0.001962 0.004085 0.000000 75 62 9
0.001771 0.003685 0.168971 0.001771 0.003685 0.000000 75 62 9
0.001897 0.003952 0.169810 0.001897 0.003952 0.000000 74 62 10
0.001897 0.003952 0.170650 0.001897 0.003952 0.000000 72 58 8
0.001835 0.003818 0.171489 0.001835 0.003818 0.000000 67 51 1
0.001963 0.004084 0.172329 0.001963 0.004084 0.000000 67 48 0
0.001897 0.003952 0.173169 0.001897 0.003952 0.000000 73 52 0
0.001834 0.003819 0.174008 0.001834 0.003819 0.000000 79 55 1
0.001834 0.003819 0.174848 0.001834 0.003819 0.000000 76 55 0
0.001834 0.003819 0.175687 0.001834 0.003819 0.000000 77 56 0
0.001835 0.003818 0.176527 0.001835 0.003818 0.000000 81 58 0
0.001900 0.003951 0.177367 0.001900 0.003951 0.000000 85 62 0
0.002028 0.004217 0.178206 0.002028 0.004217 0.000000 91 65 0
0.002410 0.005020 0.179046 0.002410 0.005020 0.000000 92 62 0
0.002475 0.005153 0.179885 0.002475 0.005153 0.000000 98 62 0
0.002540 0.005287 0.180725 0.002540 0.005287 0.000000 105 66 0
0.002605 0.005420 0.181565 0.002605 0.005420 0.000000 116 72 0
0.002540 0.005287 0.182404 0.002540 0.005287 0.000000 120 76 0
0.002540 0.005287 0.183244 0.002540 0.005287 0.000000 124 79 0
0.002027 0.004218 0.184083 0.002027 0.004218 0.000000 126 81 0
-0.003442 -0.007164 0.184923 -0.003442 -0.007164 0.000000 146 103 1
-0.003803 -0.007915 0.185763 -0.003803 -0.007915 0.000000 151 106 0
-0.004163 -0.008665 0.186602 -0.004163 -0.008665 0.000000 157 111 0
-0.004283 -0.008913 0.187442 -0.004283 -0.008913 0.000000 164 117 3
-0.004162 -0.008665 0.188282 -0.004162 -0.008665 0.000000 174 127 1
-0.004044 -0.008415 0.189121 -0.004044 -0.008415 0.000000 174 131 2
-0.004283 -0.008914 0.189961 -0.004283 -0.008914 0.000000 166 127 1
-0.019216 -0.040597 0.190800 -0.019216 -0.040597 0.000000 139 114 19
-0.003991 -0.008477 0.191640 -0.003991 -0.008477 0.000000 134 100 10
0.003595 0.007574 0.192480 0.003595 0.007574 0.000000 83 66 8
0.099159 0.206581 0.193319 0.099159 0.206581 0.000000 107 88 19
-0.029578 -0.061414 0.194159 -0.029578 -0.061414 0.000000 103 87 19
0.010411 0.020386 0.194998 0.010411 0.020386 0.000000 62 50 8
-0.008590 -0.018044 0.195838 -0.008590 -0.018044 0.000000 57 46 6
0.011618 0.022732 0.196678 0.011618 0.022732 0.000000 87 71 10
-0.005414 -0.010863 0.197517 -0.005414 -0.010863 0.000000 92 75 10
0.004797 0.010246 0.198357 0.004797 0.010246 0.000000 72 58 5
0.015000 0.031220 0.199196 0.015000 0.031220 0.000000 52 43 0
0.015222 0.031680 0.200036 0.015222 0.031680 0.000000 53 45 4
0.015295 0.031835 0.200876 0.015295 0.031835 0.000000 52 44 5
0.007489 0.015462 0.000210 0.007489 0.015462 0.000000 83 70 13
0.020930 0.041358 0.001050 0.020930 0.041358 0.000000 66 55 14
-0.004969 -0.008581 0.001889 -0.004969 -0.008581 0.000000 111 87 12
-0.001816 -0.002505 0.002729 -0.001816 -0.002505 0.000000 64 56 12
-0.008999 -0.016360 0.003568 -0.008999 -0.016360 0.000000 96 89 39
0.018763 0.037148 0.004408 0.018763 0.037148 0.000000 58 50 12
0.006744 0.013982 0.005248 0.006744 0.013982 0.000000 71 51 11
0.012447 0.024965 0.006087 0.012447 0.024965 0.000000 75 53 11
-0.008013 -0.014481 0.006927 -0.008013 -0.014481 0.000000 47 40 3
0.012336 0.024739 0.007766 0.012336 0.024739 0.000000 48 40 5
0.032336 0.063276 0.008606 0.032336 0.063276 0.000000 41 35 2
0.031880 0.062381 0.009446 0.031880 0.062381 0.000000 39 33 3
-0.007545 -0.013612 0.010285 -0.007545 -0.013612 0.000000 88 73 15
-0.000287 0.000378 0.011125 -0.000287 0.000378 0.000000 65 51 5
0.007278 0.014242 0.011964 0.007278 0.014242 0.000000 67 53 8
0.035578 0.069761 0.012804 0.035578 0.069761 0.000000 53 41 6
-0.018632 -0.035709 0.013644 -0.018632 -0.035709 0.000000 113 79 16
-0.018577 -0.035600 0.014483 -0.018577 -0.035600 0.000000 119 82 20
0.003623 0.006299 0.015323 0.003623 0.006299 0.000000 78 62 17
0.021336 0.042011 0.016162 0.021336 0.042011 0.000000 87 71 18
0.027346 0.053595 0.017002 0.027346 0.053595 0.000000 39 38 17
0.032618 0.063912 0.017842 0.032618 0.063912 0.000000 54 42 3
0.029628 0.057972 0.018681 0.029628 0.057972 0.000000 32 28 1
0.029180 0.057105 0.019521 0.029180 0.057105 0.000000 31 29 3
0.020822 0.040994 0.020360 0.020822 0.040994 0.000000 72 49 3
0.028917 0.056582 0.021200 0.028917 0.056582 0.000000 31 27 0
0.015520 0.030766 0.022040 0.015520 0.030766 0.000000 50 35 10
0.012841 0.025597 0.022879 0.012841 0.025597 0.000000 108 62 0
-0.002981 -0.005833 0.023719 -0.002981 -0.005833 0.000000 182 95 3
-0.002981 -0.005833 0.024558 -0.002981 -0.005833 0.000000 181 94 3
-0.002853 -0.005583 0.025398 -0.002853 -0.005583 0.000000 182 93 3
-0.002916 -0.005708 0.026238 -0.002916 -0.005708 0.000000 182 94 3
-0.002853 -0.005583 0.027077 -0.002853 -0.005583 0.000000 178 94 0
-0.002790 -0.005457 0.027917 -0.002790 -0.005457 0.000000 179 94 0
-0.002789 -0.005458 0.028756 -0.002789 -0.005458 0.000000 179 94 0
-0.002532 -0.004957 0.029596 -0.002532 -0.004957 0.000000 182 94 0
-0.002276 -0.004455 0.030436 -0.002276 -0.004455 0.000000 183 93 0
-0.002147 -0.004203 0.031275 -0.002147 -0.004203 0.000000 184 91 0
-0.002214 -0.004328 0.032115 -0.002214 -0.004328 0.000000 184 92 0
-0.001953 -0.003825 0.032955 -0.001953 -0.003825 0.000000 187 91 0
-0.001825 -0.003572 0.033794 -0.001825 -0.003572 0.000000 186 91 0
-0.001695 -0.003320 0.034634 -0.001695 -0.003320 0.000000 184 88 0
-0.001760 -0.003446 0.035473 -0.001760 -0.003446 0.000000 183 88 0
-0.001629 -0.003192 0.036313 -0.001629 -0.003192 0.000000 185 89 0
-0.001176 -0.002305 0.037153 -0.001176 -0.002305 0.000000 185 85 0
-0.001176 -0.002305 0.037992 -0.001176 -0.002305 0.000000 185 85 0
-0.000847 -0.001668 0.038832 -0.000847 -0.001668 0.000000 184 83 0
-0.003672 -0.007101 0.039671 -0.003672 -0.007101 0.000000 148 86 9
